# .PCD v0.7 - Point Cloud Data file format
VERSION 0.7
FIELDS x y z
SIZE 4 4 4
TYPE F F F
COUNT 1 1 1
WIDTH 1563
HEIGHT 1
VIEWPOINT 0 0 0 1 0 0 0
POINTS 1563
DATA ascii
57.084812 -29.329809 71.5401
59.366947 -28.965374 78.89901
53.977257 -29.297369 69.044594
47.398682 -31.031643 84.477303
47.250607 -31.020815 80.837227
43.510208 -31.667427 76.500099
34.474861 -33.24659 73.481598
34.422325 -33.235451 91.949203
47.41803 -30.923138 73.656799
35.653046 -32.977005 69.388
38.102577 -32.542862 71.013603
33.759769 -33.265457 91.833
58.31852 -28.671432 71.7519
52.134331 -29.972614 83.335999
51.715492 -29.862062 70.8125
50.441921 -29.52079 70.741051
35.550949 -32.844391 89.337425
49.571957 -30.297054 72.862724
46.071762 -30.817961 81.087029
57.523167 -28.84647 71.874947
57.724152 -28.858328 76.062103
34.041409 -33.017578 71.2407
41.12711 -31.765945 80.554901
37.635612 -32.380676 69.2752
36.415462 -32.586182 90.155197
41.154751 -31.646566 81.949837
54.890858 -29.299728 74.892899
45.277302 -30.962259 73.862801
52.44714 -29.697115 71.204399
54.496475 -29.315351 71.855103
41.492496 -31.602612 76.5895
48.915642 -30.2451 83.69976
59.308754 -28.287075 77.459663
54.513203 -29.271984 82.554802
36.08054 -32.44487 89.912743
36.404312 -32.438873 90.385696
35.244076 -32.621925 75.562798
55.416275 -28.864494 68.868027
34.205582 -32.78484 85.991402
58.147865 -28.240089 72.876869
43.695766 -31.092365 86.156197
31.787178 -33.190453 87.889999
59.297054 -28.218351 71.589737
47.577366 -30.367527 84.988602
57.177586 -28.40378 80.295898
33.558243 -32.829117 82.338203
42.049557 -31.327297 74.428902
47.10997 -30.422829 72.720497
58.269581 -27.8018 69.808006
57.947937 -28.482756 75.854103
34.808636 -32.561321 89.0476
39.625637 -31.618734 77.541901
58.05938 -28.197933 69.398071
36.822823 -32.104015 73.662201
38.64904 -31.777328 72.730003
50.320057 -28.829973 70.030441
58.231705 -27.890507 72.410431
40.453789 -31.383049 80.221901
52.576797 -29.238636 74.544998
58.982327 -28.004126 70.906937
43.137794 -30.835037 80.962524
34.232178 -32.431755 86.230698
51.236717 -29.461586 72.716858
51.974655 -28.975864 71.423042
41.37141 -31.143974 72.7593
52.449261 -29.185671 83.398903
40.040661 -31.160662 80.954704
33.258362 -32.562943 77.043701
45.795395 -30.34675 85.729599
43.603817 -30.669519 81.597542
54.827602 -28.671827 71.702568
34.224201 -32.352535 82.9217
47.342827 -30.037134 72.378799
40.204823 -31.285807 83.352798
50.323784 -29.269264 71.118561
57.954014 -27.475479 71.635925
34.419739 -32.276936 78.166901
46.189297 -30.17067 73.312302
43.908459 -30.393787 80.52993
57.275162 -27.04027 75.32122
56.105915 -28.299004 68.929253
55.578892 -28.421406 75.466599
38.553253 -31.410896 79.047203
39.709694 -31.106909 82.084488
40.676937 -30.986574 71.079201
38.317993 -31.374695 79.769997
34.351818 -31.879692 83.477875
49.127541 -29.348526 84.081726
36.451439 -31.605629 77.560303
50.522835 -29.115635 74.403503
37.406601 -31.419338 75.625099
47.652718 -29.603939 72.302597
44.28672 -30.064266 81.872643
39.623154 -31.002304 74.6185
50.683296 -29.035748 72.046303
44.685818 -30.089817 86.553703
40.833038 -30.295305 86.56813
35.848 -31.57008 79.460602
39.076385 -30.924772 82.913498
58.42424 -27.507637 75.750801
38.103626 -31.087868 80.856003
34.853184 -31.651867 82.4133
44.615067 -29.733593 80.706818
47.915154 -29.111118 73.033501
34.489872 -31.649019 80.495796
44.810169 -29.629192 81.391678
57.002682 -26.977478 73.099312
43.729664 -29.95318 71.856903
40.300793 -30.552193 69.751999
34.060062 -31.651997 86.228798
34.831921 -31.51458 90.516403
45.995632 -29.528955 71.462799
36.837242 -31.137115 88.830902
48.794422 -29.033133 71.144409
48.514179 -29.075113 70.866997
49.847702 -28.784573 84.292168
52.14423 -28.410568 73.121002
56.140816 -27.742682 75.9533
35.269344 -31.341084 84.440102
55.459717 -27.766251 72.070702
56.756889 -26.715082 72.376328
34.720371 -31.414629 81.649498
47.744293 -29.092468 85.544601
56.827175 -27.289326 69.38266
55.454464 -27.714577 80.830399
53.0881 -28.110714 74.779404
52.67548 -28.181234 83.122902
36.981449 -30.936224 89.074799
46.231949 -29.288458 71.257103
37.078331 -29.875868 87.758713
36.31226 -30.984463 88.437202
50.457573 -28.139341 71.389091
38.938393 -30.469824 84.807098
44.947807 -29.3971 71.9972
57.171776 -26.008842 72.050751
34.025223 -31.310455 70.184196
33.542152 -31.394922 79.802498
35.641521 -30.739693 82.50943
35.721962 -30.960024 87.545593
37.585201 -30.656229 82.265099
35.745094 -30.9744 81.504402
41.50071 -29.953228 87.322502
46.46701 -29.049408 71.486603
31.558636 -31.671455 89.031898
55.709362 -27.402069 72.631599
35.369007 -30.980904 84.658897
37.544094 -30.529308 83.26461
33.657974 -31.261688 80.360497
33.631516 -31.263102 80.820396
34.624962 -31.086613 68.568298
39.796986 -30.173529 86.283096
53.276779 -26.829601 69.251961
36.826035 -30.685402 67.916298
50.806206 -28.217682 74.684799
57.104671 -26.731041 78.788803
50.428612 -28.259804 84.364136
58.255344 -26.869368 71.988297
38.871605 -30.217325 86.698044
49.528725 -28.394112 73.168312
58.295975 -26.684872 71.778091
30.889938 -31.630352 84.833
35.641617 -30.764175 83.174103
55.852455 -26.774986 75.763313
52.488487 -27.761126 72.9963
48.236008 -28.04829 69.95797
48.681564 -28.356634 74.613503
46.262016 -28.781137 70.407402
48.877094 -28.317284 85.820702
32.911934 -31.130943 75.282303
36.927647 -30.409971 84.773102
57.444771 -26.633736 70.221077
33.654091 -30.972469 90.557198
37.323284 -30.237221 85.006012
49.052277 -28.236229 72.454903
37.882259 -30.150919 85.50827
34.952126 -30.711094 87.260803
55.876972 -26.982586 79.998802
45.564163 -28.778574 70.4338
50.482609 -27.895885 69.590599
46.534534 -28.572142 70.959106
43.01796 -29.209162 70.6045
46.49221 -28.578987 86.234497
53.829182 -27.263149 75.346802
50.995747 -26.712179 69.466705
37.618587 -29.880718 87.903297
54.611504 -26.767628 69.405083
53.08065 -26.867455 73.31543
32.496571 -30.870317 90.039497
36.738598 -30.112001 86.222687
37.602505 -29.954462 88.342598
53.18996 -27.169823 81.895103
52.253414 -27.358025 82.797203
35.266232 -30.301838 84.755402
50.8153 -27.31945 84.441086
49.495579 -27.724073 85.819702
56.844814 -26.404648 72.631302
39.214802 -29.511057 68.139297
42.371014 -28.94997 87.979897
55.647392 -26.005672 73.595764
57.102871 -25.889738 76.68338
38.610867 -29.480188 87.651062
46.335144 -28.152382 69.942596
39.107655 -29.386574 87.7258
54.323025 -25.954082 69.635155
49.236168 -27.538799 71.668999
44.072212 -28.43716 70.719902
50.202843 -27.253304 85.959457
56.919617 -26.151609 75.384003
56.499821 -26.198059 72.134605
45.445496 -28.157347 86.829201
50.034496 -27.311319 73.682503
35.110184 -29.934547 89.472
53.367897 -25.321098 80.634438
50.962868 -26.655094 75.184219
36.066723 -29.704254 85.7715
46.824539 -27.785326 71.189201
45.61805 -27.989426 71.589302
55.459694 -25.779816 70.06031
31.455856 -30.38253 82.670197
49.123085 -27.243557 74.846603
53.415905 -26.404564 73.935204
47.597973 -27.400572 72.385803
56.958214 -25.709393 75.651001
47.774399 -27.238264 73.062981
42.162651 -28.265244 69.030602
47.749184 -27.264751 86.9804
56.976421 -25.492107 71.978752
44.93084 -27.646351 69.369003
39.025093 -28.658037 88.2155
48.839581 -25.71685 73.970657
56.23592 -25.497713 70.561714
56.480309 -25.381207 71.16748
50.867378 -26.438448 84.114944
45.529644 -27.276314 72.264565
51.488132 -26.363192 83.124001
47.093933 -27.124804 71.413696
48.262821 -26.89118 69.360397
50.314716 -25.77107 85.716919
51.433266 -25.694187 75.633759
54.046936 -25.517155 80.192574
32.783913 -29.520918 74.257896
47.359726 -26.887856 71.749397
46.226307 -27.041607 69.530701
50.62516 -26.174749 73.680809
51.827366 -25.989305 82.187897
53.359791 -24.621672 73.133156
46.730255 -26.864811 87.862602
53.736996 -25.607601 74.311096
45.466164 -27.050844 72.051201
55.234421 -25.30051 72.9888
55.807636 -24.870361 77.358078
43.281696 -27.357332 69.316002
55.187889 -25.242813 75.266998
43.219597 -27.332842 88.275299
35.737946 -28.646473 67.162598
34.471134 -28.854004 68.158401
52.232788 -24.882214 81.109306
53.750412 -24.685562 72.911995
35.496975 -28.639515 88.786201
52.775902 -25.561594 75.845802
45.649216 -26.79446 74.305496
49.421745 -26.059099 87.184601
30.610304 -29.363781 86.447899
50.189499 -25.829418 86.517448
50.479755 -25.369856 74.125992
39.741199 -27.678608 89.224998
37.972656 -27.986288 66.917801
50.577202 -25.775803 84.055046
50.631008 -25.745354 82.985756
55.400513 -24.870735 75.2957
50.873726 -25.655535 69.641998
53.904518 -25.11046 74.445
48.516861 -26.051411 87.426201
54.706306 -24.333422 73.096825
55.735882 -24.694023 75.66114
32.204273 -28.85272 81.3134
48.049648 -26.019661 73.898102
54.656605 -24.828072 78.928902
33.469284 -28.546904 70.419998
33.537346 -28.461796 89.514297
54.801262 -24.04446 73.129456
51.314369 -25.292503 74.501801
35.64267 -27.83218 88.577194
32.231506 -28.625341 80.919899
50.262947 -25.277719 85.167435
49.953514 -25.093214 83.527222
49.796085 -25.113276 84.040947
32.222328 -28.581364 80.196198
46.445194 -25.990425 69.116203
53.960979 -23.294193 72.252129
41.556576 -26.76124 67.647697
48.40155 -25.48443 69.360497
51.112457 -25.000221 70.028702
53.563507 -24.492386 73.890198
51.139065 -24.915617 81.913101
50.927044 -24.629641 82.579231
53.753113 -23.787804 75.527191
47.190186 -25.580233 88.393303
44.212154 -26.045628 89.158699
43.879791 -26.051325 68.275703
35.855206 -27.464661 88.642197
49.810165 -24.886021 84.560738
44.502968 -25.914333 73.973999
46.003738 -25.492014 74.985298
51.989845 -24.291897 74.837135
32.078594 -27.933788 88.768204
32.778603 -27.79715 73.806297
54.139748 -24.01263 78.4151
44.501835 -25.712059 73.630798
50.253578 -24.693132 83.311234
51.634388 -24.431856 70.136002
42.455315 -26.014219 67.835899
50.348175 -24.36134 85.033478
30.95785 -27.969952 84.653503
51.195847 -24.39048 76.223198
33.342369 -26.75161 88.508003
35.9986 -26.987907 88.889
31.953434 -27.690422 78.6689
40.571312 -26.157761 89.516602
50.371311 -24.429047 85.709702
50.187714 -24.41745 86.353699
50.644234 -24.615278 83.007393
49.618122 -24.404551 86.694099
52.436485 -23.935532 70.537598
50.324413 -24.179945 83.359222
48.65517 -24.394115 87.2612
48.135773 -24.393555 83.390213
54.187222 -23.352987 75.885803
49.231659 -24.155283 74.6548
46.672974 -24.563494 69.286102
48.149284 -24.291607 87.712303
53.349182 -23.374214 71.425697
51.987751 -23.605438 74.335503
51.172958 -23.744745 81.468102
48.599152 -24.127085 68.781601
37.563404 -26.070147 66.660896
48.048775 -24.148384 84.266029
51.770103 -23.540138 73.294098
35.876011 -26.317417 67.756599
40.230129 -25.535246 65.9189
44.828705 -24.679901 89.454613
50.8582 -23.505381 83.486809
52.114407 -23.417284 80.480499
34.899704 -26.427011 68.558998
44.465088 -24.703209 67.972603
48.357307 -23.790489 83.092163
46.615143 -24.317297 75.542702
50.294376 -23.522575 83.743736
32.124302 -26.849476 87.896896
44.808144 -24.326988 74.762711
33.709785 -26.499338 69.986504
31.67153 -26.85701 77.874298
51.851093 -23.272713 73.179398
52.824265 -22.579224 78.913223
31.9182 -26.641684 82.934227
46.680588 -24.132736 88.510399
50.917793 -22.863369 82.950417
36.604111 -25.88633 89.512901
50.468872 -23.513815 85.048882
50.001389 -23.519161 74.715401
44.637497 -24.287483 74.371826
33.424351 -26.02141 88.419914
41.493664 -24.914101 90.347
37.154129 -25.664963 66.296097
38.400887 -25.40765 63.1022
51.853668 -23.021992 75.698662
35.082172 -25.955116 67.624413
48.271034 -23.396183 84.606483
35.828655 -25.774185 64.277
50.253994 -23.229897 85.468002
39.414696 -25.121462 65.067299
50.423187 -23.1695 74.690804
48.876709 -23.425327 69.170097
33.250725 -26.178076 69.823799
52.868469 -22.408306 73.833633
32.303703 -26.282103 86.701401
41.798817 -24.572113 65.837898
32.720989 -26.107891 73.637398
33.454014 -25.96788 65.900398
31.254047 -26.330404 82.778801
50.096939 -22.91375 84.686775
41.611771 -24.413689 62.343498
48.576946 -22.965666 83.585686
32.592236 -25.978889 66.628799
49.64592 -22.947498 86.119003
50.245403 -22.557243 84.619804
32.263451 -25.904654 86.757698
43.724186 -23.87315 65.888603
47.451324 -23.208649 75.912003
50.62611 -22.623869 74.324402
31.178644 -26.035826 77.260399
48.457829 -22.766603 86.593414
47.749245 -23.077274 87.579056
52.971279 -22.163345 77.211998
49.376129 -22.786299 69.331902
50.952633 -22.487095 81.608902
52.925709 -22.11624 73.6912
45.192604 -23.451054 62.529701
45.356476 -23.402565 75.253899
31.674677 -25.753605 73.208298
31.017944 -25.833351 68.3461
50.327328 -22.409397 70.583504
52.462654 -22.016533 75.381897
45.292236 -23.258226 67.817596
41.0158 -24.000704 64.616096
52.550163 -21.877628 73.019997
48.415627 -22.510883 84.343964
50.304298 -22.243067 73.634499
45.111946 -23.128967 74.9618
37.532997 -24.427473 89.9991
52.234074 -21.802275 72.344398
37.515018 -24.379055 61.710098
42.269234 -23.540552 90.292397
33.12674 -25.140339 88.380898
46.372444 -22.795219 68.140701
52.637405 -21.685356 75.768303
51.47139 -21.832775 71.386002
34.823673 -24.763441 62.843399
51.589947 -21.779575 80.623398
52.723907 -21.567242 76.314499
45.793182 -22.772968 88.4683
40.590405 -23.649843 60.745499
45.560577 -22.772552 66.166397
43.493229 -23.136272 64.345497
48.555901 -22.209461 76.166298
42.824196 -22.809719 90.360825
31.78067 -25.140789 64.634598
50.522873 -21.780323 73.552315
50.078636 -21.920269 84.60421
28.794149 -25.557425 71.633797
44.506439 -22.744781 89.298103
46.069698 -22.35264 75.545708
30.044079 -25.246143 76.543701
30.224129 -25.193783 81.827499
47.106846 -22.180447 68.516197
47.389969 -22.074579 63.115299
46.031002 -22.023851 64.786705
45.85886 -22.279921 75.220367
31.245203 -24.859598 87.107597
51.877121 -21.198582 76.953598
50.652225 -21.346638 83.602303
51.798889 -21.141905 79.4571
28.902279 -25.176151 66.930199
50.710876 -21.321669 81.9814
44.091118 -22.319738 89.81115
43.456371 -22.448723 60.216999
42.902195 -22.539944 90.632896
34.055088 -24.06946 61.229301
48.487747 -21.454933 63.371101
36.668537 -23.516848 60.1129
49.43219 -20.948742 74.851105
51.480141 -20.834749 74.12104
51.704533 -20.787609 74.839699
30.813068 -24.462404 62.986401
33.428421 -24.000637 89.028603
48.685062 -21.30875 70.567902
49.010227 -21.237507 85.6399
46.963448 -21.598103 66.886299
38.421108 -23.02017 90.676102
39.337826 -22.815678 59.097401
47.388111 -21.363194 75.820999
51.892895 -20.526737 78.098099
27.336571 -24.843174 75.520599
47.776108 -21.185453 86.19577
42.584141 -22.096331 91.531799
47.330246 -21.250425 75.441597
49.38583 -20.867765 74.5606
51.910248 -20.288361 75.022186
47.24564 -21.225546 65.062897
47.252026 -21.198416 68.836197
46.56768 -21.248821 87.4263
26.172817 -24.838694 69.988899
42.749821 -21.903229 91.343102
49.871086 -20.588964 71.238899
50.399551 -20.446943 74.650398
29.229944 -24.133715 80.347702
27.408113 -24.436884 65.213097
51.769321 -20.15131 73.854454
42.8358 -21.70153 92.822701
42.486485 -21.531 91.140869
50.7369 -20.267941 81.126503
51.421478 -20.129063 73.198898
50.556919 -20.234283 72.2472
49.628796 -20.391949 84.091103
43.340313 -21.497934 94.826103
33.371857 -23.223757 59.162498
44.812893 -21.203146 88.567902
50.525902 -20.165525 82.891197
47.273434 -20.730087 67.1315
30.12361 -23.736296 61.1395
43.540604 -21.346756 94.716599
43.008156 -21.402866 92.781502
36.012955 -22.622404 57.696899
47.807587 -19.819582 84.92437
43.853493 -20.905754 89.281693
48.429131 -20.3088 63.719799
29.272724 -23.671467 84.864098
41.895378 -21.443314 58.491001
39.22274 -21.902084 90.953102
43.762352 -21.105875 97.128807
45.443836 -20.754263 60.093399
42.806183 -21.053961 92.834801
51.078568 -19.726486 75.922096
43.381332 -20.947176 94.578918
28.17108 -23.743969 79.339996
51.391579 -19.586304 74.164398
25.119122 -24.186861 54.672901
38.362488 -21.83596 56.846298
28.590729 -23.555531 52.6852
24.768257 -24.220091 53.357498
43.632484 -20.743099 96.943596
28.855473 -23.464069 54.3055
26.655064 -23.836218 63.446999
25.579361 -23.991043 56.864491
47.048458 -20.001404 85.752357
29.670265 -23.291969 59.168201
42.822063 -20.832352 97.122513
39.774456 -21.421366 91.091408
28.134148 -23.468292 50.806599
29.13525 -23.264965 55.7131
47.258808 -20.058632 69.077797
23.926266 -24.172279 73.403198
32.729767 -22.597034 56.966599
46.047443 -20.251568 87.129715
31.776833 -22.753893 88.056396
34.349758 -22.296864 89.721703
24.278912 -24.045517 51.106201
47.293732 -19.97855 65.4561
29.387535 -23.128786 57.346802
25.907415 -23.71937 58.6917
26.297544 -23.604786 61.5042
40.012005 -20.931789 91.710732
46.556133 -19.986042 60.0033
26.105057 -23.57618 59.960999
47.472977 -19.798988 67.308601
49.523849 -19.424776 83.806
35.27 -21.932121 55.144901
43.841228 -20.255217 98.333717
43.807938 -20.287437 96.81546
31.435476 -22.562866 51.200901
31.920307 -22.473417 52.585098
43.608902 -20.205578 94.511955
32.28043 -22.36199 54.749298
44.642551 -19.793486 88.050911
23.919378 -23.797478 68.068497
21.784468 -24.128345 60.513165
30.942249 -22.52179 49.811798
21.280596 -24.220221 58.108898
42.996338 -20.233833 90.199387
41.783638 -20.548729 94.966904
20.866793 -24.220686 56.4231
40.983421 -20.669922 93.232002
43.728912 -20.163263 97.767639
43.305317 -20.224869 98.096001
25.560413 -23.324736 78.497101
43.671169 -20.116594 89.342796
22.015518 -23.925117 61.691101
30.746904 -22.385439 48.6558
37.517441 -21.107433 54.108898
40.628426 -20.532276 56.3097
42.782417 -19.929296 92.160599
34.83596 -21.503382 52.551498
27.620531 -22.773727 47.7673
22.16494 -23.701981 62.800499
20.102674 -23.973007 53.8592
50.981544 -18.514019 76.499496
22.827015 -23.473444 66.084396
34.25724 -21.449659 50.239399
50.294777 -18.621506 74.703499
44.033878 -19.639799 96.785568
43.920105 -19.54604 97.37854
48.095215 -18.982841 70.141899
49.6726 -18.699118 81.826302
22.362453 -23.510273 64.178703
44.217033 -19.639286 97.977913
43.779537 -19.672733 58.127499
42.246136 -19.878834 97.2659
43.616722 -19.637121 95.895821
43.79657 -19.574686 89.170601
43.183971 -19.615589 98.195801
44.026436 -19.403635 98.302826
33.4338 -21.317036 48.8666
28.159866 -22.219957 83.226402
23.14893 -23.043409 48.162899
42.478302 -19.590542 89.876099
36.965042 -20.547647 51.2486
50.430744 -18.106676 79.794502
35.50766 -20.720751 90.359703
40.758041 -19.766636 95.105003
46.343559 -18.737284 60.484001
48.938316 -18.203094 71.2593
39.278446 -19.902431 53.734699
32.988903 -20.975908 89.084503
32.273766 -21.038843 47.570202
17.382359 -23.645412 54.296902
19.913288 -23.197819 49.7048
39.011795 -19.826378 93.018997
45.139828 -18.739346 87.101501
17.194344 -23.650843 56.299801
17.068352 -23.598278 58.66029
42.259689 -19.184029 91.939102
44.652477 -18.74485 57.978901
42.44405 -19.048456 97.405899
38.395042 -19.746462 92.029503
44.495766 -18.642715 97.105797
36.119072 -20.11508 48.946999
17.498781 -23.337986 62.705627
30.103483 -21.150507 86.821503
46.204453 -18.309439 86.042099
49.480473 -17.714325 73.100601
37.595699 -19.71162 91.120018
26.869186 -21.686275 81.960403
50.44421 -17.494841 75.358704
48.688313 -17.794197 64.306297
44.08889 -18.556963 94.591797
29.600145 -21.103901 45.9631
47.726128 -17.89978 68.056297
37.158329 -19.749767 90.859901
43.376637 -18.622438 94.438599
17.631096 -23.160856 64.255302
36.495857 -19.825758 90.537804
26.279472 -21.60017 45.319901
22.491764 -22.267235 77.171303
17.838629 -23.078974 65.397697
48.46381 -17.677301 83.199997
44.510826 -18.3204 94.772797
42.124699 -18.727127 56.0453
18.160883 -22.933605 66.7089
47.140778 -18.006945 84.992256
38.270298 -19.340761 51.000301
18.72443 -22.757879 68.532097
19.816427 -22.531012 71.333702
17.236946 -22.978529 50.227299
43.413231 -18.346802 97.253304
43.535603 -18.098675 89.8871
44.780731 -17.696928 94.676567
21.792553 -21.873974 45.681499
42.981407 -18.131618 89.694603
40.281761 -18.589863 95.023499
14.940374 -23.022394 54.368099
50.500599 -16.74353 78.603699
34.876163 -19.456707 47.598
47.028328 -17.274963 66.081802
43.850029 -17.805832 89.933403
14.079782 -23.008419 57.5536
44.709167 -17.588642 58.530998
48.405331 -16.928179 71.207901
45.267643 -17.382431 95.004997
44.009628 -17.466213 88.46109
43.636948 -17.59655 92.251503
40.656624 -18.118004 53.884102
19.125134 -21.899351 46.021599
37.155579 -18.715429 48.7239
42.923805 -17.670208 91.903198
24.662863 -20.858727 80.522598
49.812435 -16.420425 73.672798
42.916824 -17.583401 55.978802
38.11916 -18.405293 92.6353
43.987789 -17.354151 92.253899
13.417752 -22.541853 60.388474
44.327316 -17.0271 87.754044
14.819939 -22.415384 50.367901
34.20879 -18.976803 89.6045
48.92403 -16.331131 80.572701
45.188381 -16.97958 95.091797
37.55003 -18.290781 91.370399
27.950216 -19.900528 44.271702
30.480625 -19.432722 45.376701
16.658379 -21.863758 46.381901
31.420807 -19.239216 87.876198
33.530102 -18.814491 46.3922
37.25069 -18.053558 89.942802
37.570862 -17.973545 90.073402
47.522907 -16.148363 68.759697
48.737015 -15.916616 71.649902
39.451164 -17.529791 51.420399
14.125378 -21.992062 68.465202
20.536928 -20.848639 43.619099
46.362309 -16.248724 61.496201
28.465189 -19.399799 85.897697
44.400578 -16.427673 92.37149
44.191181 -16.354942 89.819122
12.835865 -22.080221 63.068001
23.900417 -20.109743 42.6492
40.804352 -17.087088 94.950897
50.586803 -15.354463 77.4235
12.9934 -21.799232 65.800102
18.673477 -20.965294 75.427803
35.784035 -17.909752 47.351799
12.813068 -21.939751 64.494102
14.522168 -21.635948 70.0755
44.566761 -16.329546 88.631798
10.826581 -21.193995 53.911583
11.70694 -21.981255 57.4058
17.98584 -20.81045 43.852299
41.632362 -16.639811 54.064499
43.195587 -16.326399 56.510201
44.97541 -15.98535 92.365097
35.937748 -17.558929 90.064301
12.460562 -21.610762 50.128601
13.884023 -21.337934 46.445202
44.660488 -15.89019 89.602898
42.520111 -16.260086 94.761101
44.611759 -15.617309 87.736542
45.954731 -15.627459 85.930801
38.302231 -16.904499 49.184399
34.475822 -17.549046 46.002602
28.500549 -18.507908 43.926701
21.903269 -19.642651 79.302597
44.908215 -15.567472 92.290604
16.376562 -20.587406 43.814701
14.643554 -20.820175 72.160103
46.90155 -15.121456 84.250397
50.488091 -14.482556 76.273804
26.630508 -18.687973 84.1549
47.851562 -14.943383 82.311897
46.41568 -15.073097 67.138603
9.9139156 -21.182537 60.33279
44.658035 -15.249689 59.6903
49.697124 -14.349791 79.802902
31.355867 -17.540081 45.082699
47.708515 -14.655043 69.627403
32.730675 -17.124432 88.482803
47.51297 -14.507154 65.091797
29.671436 -17.648121 86.934601
25.672764 -18.343042 1.7646
25.460384 -18.35429 42.207901
44.913639 -14.916947 89.607903
26.669884 -18.130972 1.93879
40.440277 -15.696688 51.940201
36.92828 -16.294216 47.662899
28.623695 -17.560429 43.771301
39.323643 -15.619108 92.0261
13.146799 -20.223013 43.756901
25.238827 -18.083656 2.9298201
10.493984 -20.667624 69.563797
38.92231 -15.597795 87.534462
25.572664 -17.984982 0.29049799
26.196705 -17.828201 3.2956629
22.272451 -18.551773 1.57377
26.577253 -17.787035 0.28222501
22.219788 -18.549686 2.8285
44.18047 -14.623096 87.5737
32.650352 -16.639515 44.707199
42.062412 -14.96641 54.4944
23.13393 -18.214855 1.46411
11.118293 -20.331814 46.541
27.358286 -17.459736 2.0339301
23.051691 -18.212605 2.6240001
9.2125635 -20.64591 56.258301
44.33757 -14.342501 87.141357
38.954208 -15.356367 89.772697
35.803947 -15.889606 46.101898
9.807785 -20.472618 50.179199
21.258343 -18.441189 2.8733499
10.762089 -20.28912 70.846001
21.316051 -18.425837 1.73965
49.885426 -13.372746 74.255699
26.891674 -17.245296 3.309695
27.28006 -17.174484 0.46740699
17.577356 -18.87792 40.570499
43.446247 -14.214993 57.533001
20.388199 -18.268871 39.480801
48.766117 -13.264466 81.308197
22.001974 -17.976091 0.31279799
24.685511 -17.464529 82.044197
46.655975 -13.539872 68.471901
46.256332 -13.605667 85.744499
9.0079689 -20.170317 68.193604
39.341526 -14.819862 49.943199
41.824646 -14.38161 91.833298
15.152124 -19.06632 41.013302
38.636158 -14.921492 87.368301
50.614361 -12.806463 79.023598
22.789158 -17.673908 0.29618099
14.318228 -19.166346 74.528801
41.372704 -14.390327 87.182999
23.951691 -17.426682 1.32232
21.160553 -17.898117 0.55035502
11.997956 -18.649158 39.525681
23.685364 -17.371996 2.331321
8.5750904 -20.092093 53.522999
24.961336 -17.194633 -0.51624101
23.405184 -17.439981 2.293083
45.439224 -13.554991 62.894001
25.924795 -16.995506 -0.63566601
23.50456 -17.416676 1.27351
41.345875 -14.265286 86.744003
18.655594 -18.25746 78.134903
21.599384 -17.722855 4.1103902
6.8141327 -19.600971 59.756683
41.800694 -14.064354 89.292999
22.724489 -16.121428 5.0228109
7.5859075 -20.04789 65.069298
20.728313 -17.728399 4.0837598
22.333712 -17.399632 3.82988
25.905182 -16.719009 41.923199
23.374605 -16.956898 0.34953216
7.6386137 -19.913803 63.411098
47.792255 -12.828151 83.596001
26.673733 -16.528252 -0.38519001
41.583267 -13.880519 86.146698
34.176758 -15.139469 44.7262
27.101553 -16.134502 1.7293214
27.563007 -16.246452 84.442802
48.681595 -12.516785 72.2939
20.036352 -17.682981 1.9890856
21.447371 -17.298973 -0.38633165
28.863329 -15.999199 43.5485
26.799671 -16.323299 2.8147283
35.093216 -14.836727 88.404999
22.259878 -17.054609 -0.32010299
41.164627 -13.688292 52.164299
7.2073727 -19.637386 66.537697
26.883564 -16.155674 2.8253798
14.2859 -18.346096 39.329601
27.621918 -15.990837 3.45614
28.118481 -15.870586 2.15521
30.661875 -15.407898 87.196999
19.99036 -17.28186 0.67293501
26.980568 -15.855631 0.64434707
38.239651 -14.041067 48.4594
8.7308331 -19.239498 46.699501
10.537325 -18.907764 43.306599
23.041445 -16.529667 -0.07068453
10.559996 -18.819181 72.585297
7.731741 -19.282539 50.430599
19.533052 -17.143875 3.7915201
21.722279 -16.736528 39.416901
46.42976 -12.368052 70.8563
50.826756 -11.572746 77.720001
43.829021 -12.746819 61.0471
30.302601 -15.101431 43.201199
15.479874 -17.693245 38.773899
37.774525 -13.744734 86.386398
20.165968 -16.812407 -0.22123557
26.267498 -15.760231 41.7925
41.459797 -13.041511 84.523003
12.103029 -18.206223 37.702099
42.43615 -12.823352 55.105499
26.573658 -15.403095 0.14601567
28.089249 -15.325884 0.60235798
13.853368 -17.83321 37.521801
23.936445 -16.049101 -1.00116
5.8519154 -18.843216 57.437164
7.8778677 -18.809784 70.853104
20.879162 -16.500957 -0.76760101
24.788631 -15.797091 -1.18575
27.86129 -15.254486 3.91523
46.291153 -12.004702 85.387199
10.173656 -18.354506 41.017502
22.152315 -16.179693 80.497704
20.337851 -16.491814 5.3687901
26.355812 -15.423172 4.42314
28.402863 -15.032474 2.5324399
50.009476 -11.215331 80.4226
21.48 -16.213655 -0.699265
21.986191 -16.1175 4.8337498
20.974537 -16.254045 5.1130199
23.287657 -15.838155 5.4046202
19.614992 -16.483311 5.3653402
37.371246 -13.347631 46.878502
25.51363 -15.433065 -0.927329
50.025948 -11.073211 75.169098
45.489452 -11.853113 70.188103
22.141699 -15.658451 -0.35056961
46.154327 -11.685921 66.6735
41.10128 -12.563098 83.513
12.16438 -17.653778 35.5522
17.59642 -16.636459 37.4123
6.1890335 -18.578127 53.4422
40.246758 -12.545012 50.028599
9.9159908 -17.891722 39.049099
27.563206 -14.757193 -0.224324
25.694727 -15.045732 82.545502
18.63138 -16.246817 5.2184401
48.606884 -10.954527 82.528801
26.557644 -14.839051 4.8736701
23.972744 -15.290369 5.4879999
18.525425 -16.336369 1.8702165
26.629526 -14.800989 41.738899
28.417685 -14.477869 0.86318702
42.775227 -11.942997 58.761902
31.763628 -13.86291 43.240101
10.051123 -17.643284 37.562801
25.463295 -14.655596 -0.35153985
18.629389 -16.092115 0.732041
17.690859 -15.624657 4.8876057
27.736328 -14.37188 4.0891099
10.427781 -17.401396 35.750099
45.54221 -11.207851 83.367996
34.077572 -13.20693 86.704201
25.751635 -14.562551 -0.28985578
45.338711 -11.192252 72.2061
6.5493293 -18.021608 47.196701
24.136648 -14.91267 5.3544698
48.379257 -10.621292 73.229103
4.5473866 -18.346476 61.940899
40.600601 -11.986786 82.7136
19.087627 -15.660954 -0.34787738
28.209187 -14.113741 2.81703
19.354189 -15.666487 6.7255201
4.8588777 -18.165642 65.041801
10.512264 -17.153767 73.941399
28.651363 -13.951698 85.1287
20.844826 -15.28058 6.7835302
41.729198 -11.586321 52.5019
43.970928 -11.188202 80.090103
44.797695 -11.004543 81.607903
43.80764 -11.159927 64.491699
5.6712594 -17.86998 50.638199
37.179184 -12.299862 84.983704
4.8351388 -17.993752 56.646
4.3421936 -18.004324 59.353855
27.878506 -13.921649 -0.063302003
35.991379 -12.466557 45.507
15.111828 -16.14209 34.0424
19.887463 -15.283365 -0.91832203
26.551226 -14.081657 4.9484301
17.861809 -15.607136 6.9791098
50.306923 -9.8616133 78.769302
5.3143253 -17.789642 69.588203
26.551851 -14.028747 -0.66010201
24.354319 -14.413185 5.71593
13.119502 -16.390532 31.075399
7.4685869 -17.375666 42.978699
18.715931 -15.370119 11.3128
16.866566 -15.712153 12.453704
20.513069 -15.028253 -0.85175401
16.093416 -15.776282 36.317501
22.58577 -14.628662 -1.1270601
19.179661 -15.223767 9.2263699
28.265394 -13.612469 1.2543499
14.664103 -15.986475 76.070503
18.047855 -15.388408 13.0929
20.84885 -13.80863 -0.62161213
44.343143 -10.692741 71.514198
42.342144 -11.037653 78.303902
23.366224 -14.382196 -1.3185
11.310589 -16.495743 31.2677
44.656689 -10.609728 73.134399
17.539373 -15.380586 9.2048903
28.376431 -13.461899 41.514
19.623476 -15.003047 79.329697
27.204044 -13.632371 3.5456905
24.109428 -14.154785 -1.08222
39.0872 -11.454088 48.600101
42.058922 -10.92583 56.080399
15.012353 -15.683907 30.8344
13.670581 -15.909733 25.8598
15.535631 -15.556808 25.692801
49.487492 -9.544385 76.164703
15.861012 -15.469481 15.8784
24.521841 -13.93219 6.0941601
47.714596 -9.8383131 74.506401
21.988773 -14.354975 7.2506199
6.561408 -17.070461 72.192802
46.414948 -10.00127 76.627701
42.382771 -10.706058 62.593601
17.286243 -15.11866 16.116501
22.262028 -14.228298 39.644699
26.942387 -13.426993 3.8645177
48.946609 -9.5060234 80.782799
12.033271 -15.952195 26.1716
26.141052 -13.449683 4.5794702
27.821844 -13.144787 0.415856
14.191806 -15.531982 21.5499
26.855 -13.27404 -0.56440902
4.7387972 -17.155344 54.016701
29.288927 -12.805573 41.617901
16.668585 -15.01687 7.0507002
27.232353 -13.146879 2.85674
43.771484 -10.216061 72.598701
-51.849686 -27.038681 5.0943098
23.245483 -13.789558 39.9501
-51.887802 -27.020626 3.9965401
47.90406 -9.4178257 79.069298
7.0597839 -16.615608 40.419998
15.997152 -15.027628 22.010599
43.738945 -10.127163 74.683197
27.288717 -13.021387 4.38412
27.267841 -12.811894 1.3213432
3.9255166 -17.116781 57.7024
-53.11953 -27.021969 3.9242985
-52.854221 -27.055571 5.1201501
25.296925 -13.261912 -0.61802697
18.117687 -14.523847 36.564999
44.434559 -9.8613338 68.202698
23.142231 -13.614019 81.031097
17.551365 -14.59568 2.3888924
14.961913 -15.035616 12.6568
40.84008 -10.455231 50.323399
27.681742 -12.77408 3.2520499
7.8591385 -16.260813 35.507099
20.554529 -14.001658 9.7204599
15.447014 -14.894127 10.7777
5.3041444 -16.678223 47.6408
19.840134 -14.102748 11.8721
3.0489693 -17.05201 63.6875
16.978086 -14.396444 4.4720054
24.521717 -13.241009 6.2195301
27.201214 -12.585621 1.4969225
15.971021 -14.736032 9.0666599
-52.649292 -26.608246 3.0655477
17.988493 -14.201578 0.42382312
22.248413 -13.569453 7.6708202
-53.022179 -26.79982 3.3337626
14.058352 -14.986471 15.9038
24.498587 -13.144964 39.965801
-52.878624 -26.725281 7.0189533
12.052789 -15.320914 21.576099
-54.11974 -26.779995 7.0069995
7.1559668 -16.171154 38.244701
7.3561616 -16.115139 36.818802
-51.510334 -26.485855 3.6029799
26.959425 -12.648296 -0.052749999
26.142624 -12.779631 5.3382201
26.782068 -12.651951 82.995903
41.63031 -10.028629 60.135601
18.926283 -14.010231 13.6338
41.680119 -9.9770947 53.295502
-51.471119 -26.354652 4.79389
42.861774 -9.7127876 74.281197
16.797165 -14.291422 26.07
23.642834 -13.070943 -0.46027699
27.354528 -12.402964 4.6630998
21.72851 -13.282624 -0.87922275
9.1173849 -15.598155 31.563801
19.907085 -13.781924 -0.63815725
25.599031 -12.667723 -0.53713202
-54.599213 -26.803152 5.1194425
39.077183 -10.289842 81.153099
27.71541 -12.291811 1.9649301
22.088772 -12.413373 -0.71019214
38.250927 -10.403852 47.1642
27.812283 -12.211769 3.5876801
10.414536 -15.277536 26.235399
33.701851 -11.161911 44.0434
17.108541 -14.082069 22.3494
40.902271 -9.877861 77.4841
18.111235 -13.894096 16.5805
31.784908 -11.472195 84.306702
26.330231 -12.1327 0.8799721
24.456572 -12.727011 6.1801701
-52.608768 -26.069906 2.4918537
16.641676 -14.099506 30.6187
3.467278 -16.392042 67.935898
4.8035316 -16.114796 51.239201
18.565998 -13.622606 -0.30536899
-52.414589 -26.081535 6.79143
17.079842 -13.800677 35.355801
16.790777 -13.82789 33.4062
25.852104 -12.207182 -0.067727998
42.013771 -9.3510485 66.004402
27.459869 -11.91313 1.2087801
2.8238456 -16.239864 58.7938
3.7703073 -15.79364 54.538483
-51.409843 -25.796328 3.33305
35.622234 -10.43408 83.109901
26.070078 -12.086597 5.5673099
-55.153942 -26.402597 7.8992
24.073563 -12.417822 -0.30939299
-53.816685 -26.11725 2.6166501
27.806046 -11.697845 2.21591
24.334139 -12.308514 6.5857601
27.044657 -11.744716 4.6641088
-56.04118 -26.441153 7.8700747
-51.413685 -25.59199 4.4149699
-53.047913 -25.878218 7.46979
27.452204 -11.627962 3.9725845
39.520256 -9.5334101 48.973701
-32.627155 -22.230679 54.455799
-30.092287 -21.758226 54.0774
22.217058 -12.518023 8.2595797
-52.770012 -25.387604 2.2168877
-31.663759 -22.005875 56.853199
5.4602346 -15.421424 42.611801
15.487203 -13.644361 7.2668099
40.985054 -9.119566 57.6259
3.4038177 -15.73346 71.198097
-29.048479 -21.453341 56.559898
1.8625259 -15.988271 62.254902
26.557316 -11.322813 0.56909335
-30.843903 -21.739254 58.723999
-54.482315 -25.90633 8.0750103
-31.149281 -21.790869 51.428101
-33.585968 -22.186098 51.935001
6.2240491 -15.163775 73.260902
-55.910809 -26.086626 9.3200502
27.030214 -11.456301 40.160999
-28.023483 -21.143646 58.400902
-56.286865 -26.174713 5.0519915
41.115749 -8.9129314 51.1161
19.337254 -12.490498 -0.60833454
-52.304825 -25.373112 6.50492
20.672058 -12.420368 -0.69691545
27.47699 -11.299026 1.34297
24.407352 -11.832266 -0.047428999
-51.999298 -25.107883 3.2145538
-53.778412 -25.585629 2.21894
-28.58712 -21.141487 50.4361
-56.225441 -26.014364 4.1221199
-34.901833 -22.227728 57.2766
-35.946911 -22.412004 54.924198
-29.635208 -21.29776 60.993401
-53.005394 -25.408705 7.1908398
27.309013 -10.940603 1.8275017
4.1431637 -15.307501 51.7822
-51.92952 -25.032932 4.2087522
40.853184 -8.828949 64.180496
-35.433514 -22.262276 47.0187
42.642231 -8.4769325 70.063499
-57.207096 -25.954342 7.3792348
1.7476714 -15.674855 65.579498
-54.304939 -25.552019 8.1089497
12.453555 -13.767014 15.9964
22.466288 -11.98095 -0.47443932
22.247921 -12.029648 8.4126596
-36.614994 -22.26148 44.263145
-53.799332 -25.398415 22.055099
2.6079545 -15.446399 56.6623
-27.074301 -20.667183 53.221199
20.655931 -12.247297 10.3374
-34.648758 -21.98946 59.227501
-49.974178 -24.689211 3.77806
20.540991 -12.241571 79.935699
10.952942 -13.929562 75.236198
-52.522526 -25.107512 5.7069831
10.539822 -13.991441 21.327
-30.659864 -21.251183 46.5495
-50.049988 -24.666428 2.5347199
14.543074 -13.27185 9.0208397
17.320549 -12.786505 2.6447833
-52.603176 -24.85993 2.6750956
2.3590858 -15.407117 66.760201
-56.048763 -25.701633 3.4101
19.664968 -12.339985 12.4254
-56.487103 -25.760441 11.2044
-25.970985 -20.370895 55.858601
-57.346886 -25.884731 11.3683
17.894049 -12.580394 0.53513587
16.791111 -12.800116 4.1448302
24.894224 -11.366241 0.324999
36.798401 -9.2621384 45.8643
13.117542 -13.436694 12.7575
-52.238914 -24.946486 23.5476
-55.499672 -25.513016 9.1795998
26.694777 -11.009764 0.72135901
-52.337132 -24.944 5.4786
13.722605 -13.28218 10.8346
-35.118008 -21.888004 42.946602
-26.890015 -20.427542 60.6735
-37.819454 -22.340584 52.120998
23.958969 -11.443724 6.7775898
-25.594265 -20.176218 57.977402
8.8825951 -14.073968 26.2344
-42.047249 -23.047369 52.2244
-50.818932 -24.586639 2.14165
-58.079891 -25.62796 11.061756
-36.996521 -22.124908 57.885105
18.807291 -12.279804 14.3281
1.0652829 -15.393476 60.6115
-42.405117 -23.049545 54.764801
-34.745224 -21.670977 61.578602
-39.736958 -22.539984 52.192699
-37.620789 -22.165834 55.208099
-39.814098 -22.535004 55.078602
-28.717344 -20.556107 62.879002
-39.063557 -22.379208 47.614601
-50.736084 -24.437386 24.929199
-51.084225 -24.479679 6.3807998
26.101095 -10.449503 3.0632827
-38.911331 -22.324541 38.911499
15.266538 -12.759741 76.858002
41.906612 -8.0608549 70.8386
16.103575 -12.60494 5.6672502
5.0582952 -14.552521 39.608601
24.385094 -11.143972 81.476196
40.74371 -8.2587957 55.1161
23.192406 -11.286558 -0.20605867
2.6770105 -14.963064 54.2061
-53.735058 -24.895107 2.1221399
-39.107796 -22.297112 58.048721
-53.183052 -24.791576 6.5761199
18.316214 -12.159351 -0.017673001
-55.992874 -25.260727 10.8826
24.571629 -10.297329 4.6257629
6.9896784 -14.115602 31.6367
31.309097 -9.8108807 42.578098
-56.645393 -25.313133 14.5282
-48.329262 -23.842817 26.944099
-25.422686 -19.802343 60.201199
-41.974487 -22.617182 58.849716
17.785259 -12.143305 17.280899
40.068428 -8.2108288 62.069599
-51.788357 -24.398319 1.79027
4.6176052 -14.445317 48.726601
29.43782 -10.066304 82.627197
-56.860748 -25.281548 18.596201
-25.859072 -19.808922 62.475201
-44.89571 -23.160925 52.127102
5.3830571 -14.285876 34.519199
-41.592449 -22.552681 33.600201
26.325745 -10.588573 1.0313888
-53.979412 -24.670277 7.1925254
-37.383663 -21.794514 61.607899
-51.688328 -24.314274 7.1125698
-57.75745 -25.382999 14.8089
-45.47691 -23.216393 54.360001
38.561298 -8.3897591 47.776199
0.57513547 -15.080128 64.1437
-55.707668 -25.001972 22.499599
-37.184521 -21.730663 38.686401
-45.158829 -23.136036 29.656601
0.20473337 -15.116095 58.507
-39.296619 -22.061756 43.6054
-35.437088 -21.374714 63.5788
-53.982876 -24.592365 24.479597
25.781387 -10.15796 2.3331461
-53.833549 -24.482475 2.4009705
-55.226555 -24.833263 8.9050398
-55.406662 -24.851315 17.841999
-42.493336 -22.552107 47.676102
-55.800938 -24.89687 2.80562
39.986301 -8.0001907 49.816399
19.145082 -11.47304 -0.32494116
-49.538982 -23.772917 3.9065599
4.9780512 -14.133996 43.308102
2.7001917 -14.529246 52.374802
16.628529 -12.050257 22.8237
1.1035476 -14.787727 66.900101
-6.7863503 -16.175432 59.610996
24.750071 -10.52984 0.55809915
-29.041899 -20.083179 46.0294
-49.647549 -23.715805 2.46912
-56.167736 -24.839186 14.3024
-27.220425 -19.731339 64.673897
-40.808914 -22.106541 38.665199
-57.593681 -25.059246 18.912201
-45.044258 -22.83399 57.886898
-41.163807 -22.129009 61.9673
4.8021183 -14.020727 35.801701
4.8649864 -14.003752 37.076801
15.727234 -12.07443 26.864401
-26.67453 -19.544201 49.720699
-0.42726564 -14.909197 62.402199
-4.8595581 -15.675195 58.4147
23.346838 -10.699512 6.6117201
-54.902851 -24.473288 8.41467
14.112331 -11.900573 9.0233345
-52.552845 -24.039116 21.265301
-5.6967716 -15.766157 62.356998
-22.982227 -18.813438 62.294498
4.2094359 -14.015669 49.231998
-24.88695 -19.122791 52.271702
-50.359791 -23.614338 1.92292
-7.5665689 -16.068027 55.347801
-54.936012 -24.414246 17.487499
-43.714184 -22.432896 33.758202
-58.621868 -25.051365 15.0035
-23.518539 -18.852259 55.243198
-51.00066 -23.695358 22.983601
-50.904831 -23.676735 27.3962
-0.31303978 -14.750145 55.600399
-1.4482441 -14.948486 60.4935
-23.265478 -18.780931 57.487202
-53.294727 -24.045948 7.6726699
40.325211 -7.5363936 72.530701
-1.9206758 -14.982438 59.540298
-55.653419 -24.455647 10.333
-49.558308 -23.379398 24.4259
21.449186 -10.850834 8.6577196
-3.8413515 -15.305873 60.918701
-47.923309 -23.071095 29.968901
-50.776283 -23.571918 6.4746799
-33.832672 -20.568157 65.767998
-40.735085 -21.773155 43.525002
-47.025562 -22.877056 26.508301
-56.665855 -24.573957 22.7269
-5.294899 -15.510284 54.726799
-2.581718 -15.016646 57.0219
-0.40779281 -14.630684 53.563099
-55.054813 -24.173492 2.6408904
-23.118589 -18.622314 64.846802
39.921082 -7.4938231 68.202301
-58.199448 -24.794491 4.3137579
18.671928 -11.226068 0.51050448
-58.093971 -24.767891 19.1075
-58.796909 -24.873764 7.47437
-42.95063 -22.089457 62.03857
-55.64555 -24.31657 24.0219
-40.19239 -21.584553 33.354099
11.712448 -12.430195 16.3899
-43.674294 -22.190382 29.338301
-40.170269 -21.569483 64.027298
-53.521046 -23.881346 1.95828
-23.036106 -18.503283 59.596001
19.724903 -10.951684 10.7871
2.3508942 -14.012857 69.882599
-3.112823 -14.958792 62.268799
39.487526 -7.4467931 59.900299
-51.529995 -23.490362 1.51327
-3.006758 -14.922829 54.141201
-32.037682 -20.029781 41.809799
18.093615 -11.10098 14.695573
-4.7391109 -15.202902 63.838902
-51.462727 -23.419807 7.23912
-57.884239 -24.538994 3.2016201
-55.931541 -24.188486 14.0425
18.059219 -11.119032 2.6646578
9.8764877 -12.582522 21.8234
-18.405191 -17.242876 64.106621
14.871117 -11.695436 31.6887
40.635487 -7.1503506 53.008301
-59.223957 -24.743038 11.31
-54.487328 -23.895149 25.4727
17.853739 -11.136315 37.744301
23.60256 -9.7413397 0.83557308
-7.8573823 -15.658608 63.419498
-59.114906 -24.695782 15.1049
24.437332 -9.6539879 1.6759831
-0.31426692 -14.297685 65.834
12.213751 -12.082056 13.1685
17.322205 -11.173987 4.4724398
-9.6539507 -15.906953 59.6646
32.375725 -8.4773006 81.517502
12.852506 -11.91114 11.1899
-6.3271952 -15.283598 65.284401
-1.6681387 -14.459542 64.114601
2.7973628 -13.65814 49.557301
-10.587784 -15.999417 55.959
-54.347809 -23.304989 8.9298906
-20.82053 -17.801392 65.293297
22.072704 -9.9555817 0.16280097
16.905605 -11.141334 17.6917
15.876718 -11.29879 36.507099
35.734211 -7.7670178 79.264397
16.611607 -11.110619 5.9735699
-49.511063 -22.767391 3.9546001
-53.071354 -23.383595 7.8899298
2.9875755 -13.495234 72.675201
0.0057256222 -13.748514 48.518639
15.706514 -11.192733 23.09
15.447124 -11.235628 34.3139
20.662678 -10.18292 0.08271689
-52.865223 -23.051414 27.560944
-54.978676 -23.627502 10.2964
-49.606304 -22.674725 2.6085999
24.160961 -9.573597 3.1877842
34.448421 -7.8438578 44.405602
8.0183563 -12.481853 26.7244
38.778587 -7.0479374 48.6707
-46.363186 -22.051903 47.4366
-5.1287222 -14.773231 50.791599
-49.812874 -22.524597 29.869757
-18.876785 -17.174335 65.8592
-43.125263 -21.445122 29.115
38.007347 -7.1318412 75.7584
-50.738125 -22.779961 22.757601
-51.911385 -22.985926 21.249399
-48.121521 -22.31493 51.626301
-49.516075 -22.548943 24.1509
-20.119331 -17.353626 61.917099
-48.471207 -22.345615 54.149799
-46.7169 -22.021152 26.4415
-7.3405066 -15.070825 51.259701
-50.090557 -22.575706 2.0780001
-44.587547 -21.59269 43.203098
36.848137 -7.2286043 46.529598
29.169418 -8.5781031 41.140499
-53.264042 -23.11203 1.58252
-45.743736 -21.782034 33.7626
-2.8997324 -14.223419 50.400299
-2.7487953 -14.189697 65.737099
-47.282833 -22.010567 47.703602
-48.291546 -22.182236 57.7584
-57.602772 -23.808723 2.5917799
-50.815166 -22.60965 6.3295999
-54.27906 -23.21566 17.215099
21.279099 -9.8913937 6.9612098
-55.332527 -23.37714 13.8369
38.692589 -6.7974696 66.406998
15.496619 -10.877695 7.86341
18.4958 -10.348553 37.819599
1.022746 -13.427597 68.304001
21.995857 -9.6844864 80.359596
-8.9766407 -15.117546 66.284698
4.6370955 -12.715757 45.263401
20.020391 -9.8474998 0.93994558
-43.878609 -21.260231 38.612301
-34.96846 -19.6805 37.9091
-10.446295 -15.356379 64.220703
39.323048 -6.5732889 57.806599
-39.823124 -20.506248 67.510803
4.9267402 -12.610563 39.9487
-51.325943 -22.526081 1.6544501
-44.001163 -21.23381 64.760498
19.808823 -9.9815769 8.7615604
-58.72879 -23.789059 23.135799
-39.191772 -20.341919 32.936001
-51.479492 -22.500652 7.0169802
-46.573517 -21.63418 62.192902
14.491524 -10.858538 9.6218004
-57.733906 -23.591394 25.421101
-0.88539171 -13.566452 67.240303
-57.082626 -23.468634 26.3657
14.415289 -10.858678 27.4321
-58.24012 -23.656891 24.527901
-59.172848 -23.812624 19.4965
-50.803101 -22.3032 3.9721501
21.880033 -9.4848652 5.3523798
-23.257053 -17.441422 51.4422
-50.895596 -22.27496 2.6863647
-53.060062 -22.68055 7.7409401
-12.439326 -15.503499 61.854099
-55.02383 -22.606194 2.0825853
-46.629375 -21.52644 43.0975
-51.863129 -22.30176 5.9505038
-17.91049 -16.454605 62.002399
40.173141 -6.2081194 51.792301
-56.412289 -23.235659 2.0700915
-13.947849 -15.740147 64.811302
-25.685066 -17.804657 48.936699
12.017522 -11.153122 17.0336
6.8203034 -12.062827 74.428101
-10.556478 -15.123674 52.060299
-47.003014 -21.546223 33.7672
18.044937 -10.047878 10.3933
-54.34127 -22.806442 8.7375202
18.539221 -9.9492493 4.8930101
-14.656271 -15.802003 62.187302
19.10144 -9.822072 3.4981709
5.8074775 -12.177951 31.8904
-51.094318 -22.204777 30.1754
12.52031 -10.986581 13.7511
26.885166 -8.452857 81.471603
17.871559 -10.03438 6.41681
13.25773 -10.843863 11.7236
4.3333063 -12.413111 46.015598
22.20702 -9.2390537 0.88279599
-45.250507 -21.111904 38.523102
13.635457 -10.725165 32.4291
16.39003 -10.154092 14.135424
-50.872982 -22.075581 4.0082402
-59.856071 -23.65629 15.3431
-4.0975943 -13.821724 67.732101
-54.730961 -22.742035 10.2315
-2.6408892 -13.551258 47.686901
-50.912758 -22.027611 2.7205124
-13.593402 -15.453137 60.018501
15.963621 -10.226408 10.1334
11.436193 -11.022583 75.801697
22.295229 -9.0043316 3.3677216
-27.778957 -17.93321 45.308399
-52.174236 -22.067394 2.3018501
-55.081631 -22.724564 28.3813
-52.021694 -22.085993 6.1724396
21.095692 -9.2802582 0.84406
16.827961 -10.029526 8.2727404
-4.4997149 -13.780829 47.439602
-52.935921 -22.301941 1.62324
19.508339 -9.5265408 6.8486099
-46.735191 -21.192951 38.494999
15.065275 -10.288041 17.860901
22.354916 -8.9761763 1.84824
19.556271 -9.462038 37.752499
-48.492424 -21.458221 33.794998
-55.100506 -22.584105 13.7504
18.559196 -9.5955048 8.59025
37.959091 -6.1700082 64.541
14.368229 -10.272288 13.473248
13.479889 -10.456194 17.5637
20.075279 -9.2813683 5.2730899
-13.847576 -15.24288 67.014603
-52.986649 -22.138062 30.566601
-32.593601 -18.517136 69.108704
37.575565 -6.1383238 70.718201
-53.957672 -22.277596 17.1061
8.5193119 -11.252892 27.1644
-53.302349 -22.111565 7.0210814
3.1364946 -12.183039 46.361599
-15.59798 -15.475467 60.0453
-8.5939407 -14.237521 68.376999
-14.213855 -15.227246 56.579601
-51.95192 -21.881283 20.9634
-57.286907 -22.819748 2.09654
-50.786007 -21.670519 22.5079
10.137291 -10.923429 22.3437
-49.371979 -21.405859 24.052401
20.978241 -8.9965439 1.80127
-49.569633 -21.414204 4.0231199
-53.295059 -21.979605 2.2073972
20.685013 -8.9505424 3.2663236
-6.4237323 -13.791085 47.4636
-50.938812 -21.629128 6.49224
-51.696915 -21.755898 7.1191502
-20.285446 -16.192125 59.780499
13.426913 -10.240415 23.258699
-49.460197 -21.314386 2.6422501
-50.476761 -21.490488 33.915901
-60.223782 -23.201231 11.4239
16.064615 -9.7464781 77.362099
-21.313202 -16.331816 54.574299
-55.711563 -22.342194 1.9735079
0.40936518 -12.496565 45.618
-46.440346 -20.756214 26.634399
-54.373032 -22.052237 8.3778324
-54.864742 -22.220646 10.1711
-17.979057 -15.703503 60.069
39.461563 -5.566741 55.858898
4.3220282 -11.761977 34.116001
-48.894451 -21.067091 38.696201
-49.903095 -21.241486 1.9619401
-13.766475 -14.866073 52.884602
-60.076996 -23.021309 9.1225405
11.823338 -10.342322 22.8531
13.876802 -9.9205322 35.562099
-49.713142 -21.104218 47.452999
-42.121841 -19.765156 28.962299
-59.820499 -22.831104 7.1953039
36.56752 -5.8559833 47.3452
-15.849743 -15.098052 56.943802
-42.124409 -19.730986 68.966202
-48.784363 -20.905315 42.955101
3.8404591 -11.609993 35.488201
13.900323 -9.8166704 38.1548
-20.490887 -15.859751 57.290401
-54.516697 -21.845509 2.4259601
-31.237879 -17.731176 40.442101
-50.844913 -21.181522 50.775101
3.5689256 -11.575622 36.66
-9.2873974 -13.825073 48.0331
-22.714661 -16.1558 50.716301
-59.164516 -22.432934 3.6460874
-51.086899 -21.157272 1.53424
-39.286705 -19.076174 70.2118
-53.622234 -21.597723 7.8277502
-19.354782 -15.551891 51.304699
37.606544 -5.499742 62.6134
-54.157219 -21.679157 17.1724
39.366894 -5.13695 50.649502
-15.582223 -14.825963 53.2547
34.356564 -6.0127916 44.961102
-55.12265 -21.789986 13.7867
-17.294752 -15.116149 57.115898
-26.463104 -16.728817 69.119102
11.966108 -9.9524059 28.1705
-18.523792 -15.324231 57.208801
-59.007046 -22.46151 23.463301
6.6184549 -10.885086 32.179699
14.026196 -9.5751448 38.420399
-51.070328 -21.047935 54.002499
-1.365196 -12.278299 69.126404
-58.771278 -22.39983 2.76636
-12.884756 -14.289199 49.675301
10.415404 -10.134753 27.838301
-46.031765 -20.078264 66.286697
-53.060795 -21.314426 1.8597701
-16.946487 -14.934618 53.539501
2.1090405 -11.572481 71.581802
-38.151806 -18.638857 32.544601
9.0387783 -10.302956 27.563499
-19.342634 -15.29772 53.8913
